<?xml version="1.0" encoding="utf-8" ?>
<NEKTAR>
  <POINTS DIM="2" FIELDS="Bx,By,Bz,Psi">
          0.75718752       1.58125003       0.12523908       0.22079740       0.68830667       1.01018488
          0.75718752       1.65000004       0.12322179       0.19611924       0.68852091       0.94116509
          0.75718752       1.71875004       0.08970202       0.17592078       0.68924650       0.88262754
          0.75718752       1.78750004       0.04935097       0.14605376       0.69001228       0.84540524
          0.75718752       1.85625004       0.02345738       0.11005718       0.69049590       0.82666110
          0.75718752       1.92500004       0.01347444       0.07880208       0.69076684       0.81717454
          0.75718752       1.99375004       0.00616776       0.05452570       0.69093428       0.81160948
          0.75718752       2.06250004       0.00269194       0.04428564       0.69098954       0.80981525
          0.75718752       2.13125005       0.00478877       0.03521554       0.69105582       0.80769456
          0.75718752       2.20000005       0.00469819       0.02789120       0.69114022       0.80503155
          0.78750002      -2.20000005    -126.98807579       0.02913698       0.66448228       0.80681546
          0.78750002      -2.13125005      -0.00668469       0.03630291       0.66438252       0.81013256
          0.78750002      -2.06250004      -0.00244375       0.04575689       0.66429725       0.81302565
          0.78750002      -1.99375004      -0.01241073       0.05633461       0.66422439       0.81554357
          0.78750002      -1.92500004      -0.02684543       0.08015267       0.66388661       0.82781940
          0.78750002      -1.85625004      -0.03785621       0.10731762       0.66345951       0.84509067
          0.78750002      -1.78750004      -0.06569789       0.13654920       0.66287355       0.87354484
          0.78750002      -1.71875004      -0.10305367       0.16252440       0.66220165       0.92075392
          0.78750002      -1.65000004      -0.13594374       0.18979106       0.66181728       0.98859611
          0.78750002      -1.58125003      -0.13929519       0.23353832       0.66181232       1.06809222
          0.78750002      -1.51250003      -0.07791388       0.27525098       0.66181232       1.13310704
          0.78750002      -1.44375003       0.00635293       0.23555736       0.66181232       1.15142042
          0.78750002      -1.37500003       0.04137617       0.16199025       0.66181232       1.13519231
          0.78750002      -1.30625003       0.04272964       0.10982847       0.66181232       1.11120166
          0.78750002      -1.23750003       0.04122801       0.07731654       0.66181232       1.08767612
          0.78750002      -1.16875003       0.04268677       0.05573390       0.66181232       1.06428416
          0.78750002      -1.10000002       0.04819784       0.03983732       0.66181232       1.03891352
          0.78750002      -1.03125002       0.05783194       0.02678749       0.66181232       1.00931087
          0.78750002      -0.96250002       0.07074933       0.01492989       0.66184963       0.97326367
          0.78750002      -0.89375002       0.08515989       0.00271765       0.66211578       0.92947037
          0.78750002      -0.82500002       0.10008709      -0.01022598       0.66280494       0.87740091
          0.78750002      -0.75625002       0.11477937      -0.02413686       0.66418387       0.81696220
          0.78750002      -0.68750001       0.12831089      -0.03913672       0.66660284       0.74854417
          0.78750002      -0.61875001       0.13966079      -0.05523911       0.67047284       0.67308002
          0.78750002      -0.55000001       0.14769154      -0.07233103       0.67619657       0.59211173
          0.78750002      -0.48125001       0.15120508      -0.09014108       0.68407673       0.50784121
          0.78750002      -0.41250001       0.14904614      -0.10820929       0.69417030       0.42313833
          0.78750002      -0.34375001       0.14026431      -0.12587430       0.70608990       0.34147375
          0.78750002      -0.27500001       0.12431302      -0.14229378       0.71896546       0.26674885
          0.78750002      -0.20625000       0.10124589      -0.15650903       0.73149292       0.20301213
          0.78750002      -0.13750000       0.07185338      -0.16755350       0.74209649       0.15407906
          0.78750002      -0.06875000       0.03768378      -0.17458963       0.74925577       0.12310528
          0.78750002       0.00000000       0.00091521      -0.17704496       0.75186220       0.11218915
          0.78750002       0.06875000      -0.03591281      -0.17471283       0.74949697       0.12208723
          0.78750002       0.13750000      -0.07025379      -0.16778939       0.74254157       0.15210851
          0.78750002       0.20625000      -0.09991002      -0.15683655       0.73207617       0.20021259
          0.78750002       0.27500001      -0.12330439      -0.14268150       0.71960863       0.26328797
          0.78750002       0.34375001      -0.13961307      -0.12628138       0.70671903       0.33754561
          0.78750002       0.41250001      -0.14874915      -0.10858758       0.69472919       0.41894451
          0.78750002       0.48125001      -0.15122987      -0.09043874       0.68453181       0.50357300
          0.78750002       0.55000001      -0.14798320      -0.07249742       0.67653927       0.58793550
          0.78750002       0.61875001      -0.14015052      -0.05523047       0.67071308       0.66912690
          0.78750002       0.68750001      -0.12892565      -0.03892172       0.66675943       0.74490496
          0.78750002       0.75625002      -0.11545120      -0.02370110       0.66427800       0.81368767
          0.78750002       0.82500002      -0.10076462      -0.00957362       0.66285613       0.87450758
          0.78750002       0.89375002      -0.08580922       0.00356633       0.66213951       0.92695140
          0.78750002       0.96250002      -0.07139114       0.01594798       0.66185661       0.97110442
          0.78750002       1.03125002      -0.05843777       0.02794602       0.66181232       1.00750831
          0.78750002       1.10000002      -0.04876006       0.04113683       0.66181232       1.03743412
          0.78750002       1.16875003      -0.04331320       0.05727772       0.66181232       1.06313403
          0.78750002       1.23750003      -0.04201080       0.07932268       0.66181232       1.08691843
          0.78750002       1.30625003      -0.04363158       0.11270571       0.66181232       1.11092485
          0.78750002       1.37500003      -0.04161340       0.16625170       0.66181232       1.13530198
          0.78750002       1.44375003      -0.00338001       0.23984065       0.66181232       1.15093330
          0.78750002       1.51250003       0.08123857       0.27337899       0.66181232       1.13040926
          0.78750002       1.58125003       0.13750010       0.22906357       0.66181232       1.06489185
          0.78750002       1.65000004       0.13037610       0.18614621       0.66181844       0.98766449
          0.78750002       1.71875004       0.09696170       0.15837413       0.66217633       0.92320580
          0.78750002       1.78750004       0.06108260       0.13135796       0.66277574       0.87908886
          0.78750002       1.85625004       0.03595577       0.10244295       0.66329308       0.85250058
          0.78750002       1.92500004       0.02459366       0.07668670       0.66367558       0.83607523
          0.78750002       1.99375004       0.01291096       0.05575494       0.66396427       0.82490405
          0.78750002       2.06250004       0.00612965       0.04469810       0.66408070       0.82063767
          0.78750002       2.13125005       0.00852556       0.03542227       0.66420296       0.81629097
          0.78750002       2.20000005       0.00608541       0.02879114       0.66432855       0.81195671
          0.81781252      -2.20000005    -122.28383639       0.02876532       0.63964316       0.81415693
          0.81781252      -2.13125005      -0.01015257       0.03636071       0.63950159       0.81932311
          0.81781252      -2.06250004      -0.00716347       0.04658848       0.63935929       0.82470560
          0.81781252      -1.99375004      -0.01896032       0.06194577       0.63921042       0.83056672
          0.81781252      -1.92500004      -0.03541073       0.07750381       0.63880946       0.84775377
          0.81781252      -1.85625004      -0.04759746       0.09850480       0.63834718       0.87109051
          0.81781252      -1.78750004      -0.07438240       0.12201393       0.63782001       0.90618081
          0.81781252      -1.71875004      -0.11009693       0.14576288       0.63737006       0.95969445
          0.81781252      -1.65000004      -0.14753822       0.17756541       0.63728202       1.03509126
          0.81781252      -1.58125003      -0.16563418       0.24170553       0.63728202       1.12822847
          0.81781252      -1.51250003      -0.08030990       0.32004839       0.63728202       1.20839408
          0.81781252      -1.44375003       0.04309450       0.26490124       0.63728202       1.21460483
          0.81781252      -1.37500003       0.07215407       0.16319746       0.63728202       1.17643019
          0.81781252      -1.30625003       0.05836590       0.10699606       0.63728202       1.13868105
          0.81781252      -1.23750003       0.05056484       0.07611392       0.63728202       1.10710350
          0.81781252      -1.16875003       0.04846965       0.05675010       0.63728202       1.07851940
          0.81781252      -1.10000002       0.05213713       0.04286133       0.63728202       1.04937762
          0.81781252      -1.03125002       0.06055426       0.03165876       0.63728202       1.01670770
          0.81781252      -0.96250002       0.07284181       0.02172963       0.63730545       0.97790729
          0.81781252      -0.89375002       0.08700293       0.01148869       0.63755849       0.93127629
          0.81781252      -0.82500002       0.10171437       0.00060558       0.63825822       0.87619567
          0.81781252      -0.75625002       0.11628478      -0.01110645       0.63968917       0.81251878
          0.81781252      -0.68750001       0.12975958      -0.02374109       0.64222734       0.74060822
          0.81781252      -0.61875001       0.14111899      -0.03731296       0.64631630       0.66139356
          0.81781252      -0.55000001       0.14921163      -0.05174176       0.65239532       0.57644125
          0.81781252      -0.48125001       0.15281484      -0.06681981       0.66080258       0.48801376
          0.81781252      -0.41250001       0.15073486      -0.08217758       0.67160182       0.39908587
          0.81781252      -0.34375001       0.14197401      -0.09726330       0.68437881       0.31328162
          0.81781252      -0.27500001       0.12593907      -0.11135322       0.69820854       0.23470037
          0.81781252      -0.20625000       0.10265038      -0.12360522       0.71168221       0.16761823
          0.81781252      -0.13750000       0.07289043      -0.13315670       0.72309436       0.11608187
          0.81781252      -0.06875000       0.03823121      -0.13925231       0.73080273       0.08344828
          0.81781252       0.00000000       0.00090355      -0.14137303       0.73360778       0.07195375
          0.81781252       0.06875000      -0.03648314      -0.13933210       0.73105554       0.08240458
          0.81781252       0.13750000      -0.07131288      -0.13331013       0.72356055       0.11406213
          0.81781252       0.20625000      -0.10133626      -0.12381897       0.71229284       0.16475031
          0.81781252       0.27500001      -0.12495375      -0.11160529       0.69888122       0.23115869
          0.81781252       0.34375001      -0.14135046      -0.09752212       0.68503483       0.30926943
          0.81781252       0.41250001      -0.15047300      -0.08240256       0.67218195       0.39481597
          0.81781252       0.48125001      -0.15288457      -0.06696413       0.66127197       0.48368990
          0.81781252       0.55000001      -0.14955881      -0.05175736       0.65274473       0.57224225
          0.81781252       0.61875001      -0.14167339      -0.03715698       0.64655749       0.65746148
          0.81781252       0.68750001      -0.13044425      -0.02338282       0.64238118       0.73704168
          0.81781252       0.75625002      -0.11702603      -0.01053328       0.63977878       0.80937194
          0.81781252       0.82500002      -0.10245390       0.00138514       0.63830495       0.87348343
          0.81781252       0.89375002      -0.08770280       0.01244654       0.63757862       0.92898570
          0.81781252       0.96250002      -0.07351782       0.02282735       0.63731022       0.97601546
          0.81781252       1.03125002      -0.06118306       0.03284840       0.63728202       1.01520204
          0.81781252       1.10000002      -0.05274486       0.04414712       0.63728202       1.04822521
          0.81781252       1.16875003      -0.04919929       0.05822388       0.63728202       1.07775129
          0.81781252       1.23750003      -0.05160171       0.07800023       0.63728202       1.10683925
          0.81781252       1.30625003      -0.05973487       0.10982519       0.63728202       1.13912867
          0.81781252       1.37500003      -0.07356201       0.16817078       0.63728202       1.17770761
          0.81781252       1.44375003      -0.03833399       0.27165773       0.63728202       1.21548848
          0.81781252       1.51250003       0.08672420       0.31653341       0.63728202       1.20499077
          0.81781252       1.58125003       0.16363820       0.23462820       0.63728202       1.12358017
          0.81781252       1.65000004       0.14159700       0.17329471       0.63728202       1.03314984
          0.81781252       1.71875004       0.10457132       0.14192924       0.63736338       0.96113569
          0.81781252       1.78750004       0.07008901       0.11772978       0.63776789       0.91053342
          0.81781252       1.85625004       0.04545764       0.09436655       0.63823839       0.87736637
          0.81781252       1.92500004       0.03266372       0.07409007       0.63865310       0.85514266
          0.81781252       1.99375004       0.01900109       0.05847630       0.63899807       0.83938983
          0.81781252       2.06250004       0.01051310       0.04470657       0.63917633       0.83194547
          0.81781252       2.13125005       0.01174198       0.03518703       0.63934595       0.82522105
          0.81781252       2.20000005       0.00830825       0.02768501       0.63950648       0.81914038
          0.84812502      -2.20000005    -117.91727032       0.02864830       0.61658554       0.82164720
          0.84812502      -2.13125005      -0.01307467       0.03590707       0.61640713       0.82880977
          0.84812502      -2.06250004      -0.01328655       0.04640759       0.61621564       0.83692953
          0.84812502      -1.99375004      -0.02456816       0.06373922       0.61599103       0.84713576
          0.84812502      -1.92500004      -0.04033788       0.07351317       0.61559346       0.86759033
          0.84812502      -1.85625004      -0.05488444       0.08954941       0.61515558       0.89574265
          0.84812502      -1.78750004      -0.08070744       0.10814995       0.61473152       0.93633785
          0.84812502      -1.71875004      -0.11722622       0.12839536       0.61450522       0.99564758
          0.84812502      -1.65000004      -0.15936116       0.15969914       0.61450518       1.07944587
          0.84812502      -1.58125003      -0.21649505       0.23953458       0.61450518       1.19167979
          0.84812502      -1.51250003      -0.09107322       0.43911584       0.61450518       1.30479688
          0.84812502      -1.44375003       0.10288232       0.29581588       0.61450518       1.28814620
          0.84812502      -1.37500003       0.10770839       0.15473543       0.61450518       1.21837084
          0.84812502      -1.30625003       0.07201223       0.09969076       0.61450518       1.16587850
          0.84812502      -1.23750003       0.05848728       0.07289396       0.61450518       1.12668046
          0.84812502      -1.16875003       0.05300537       0.05673918       0.61450518       1.09342019
          0.84812502      -1.10000002       0.05513231       0.04528628       0.61450518       1.06094901
          0.84812502      -1.03125002       0.06242106       0.03612065       0.61450518       1.02560672
          0.84812502      -0.96250002       0.07409159       0.02819043       0.61451516       0.98446548
          0.84812502      -0.89375002       0.08800367       0.02002467       0.61473853       0.93542085
          0.84812502      -0.82500002       0.10247678       0.01130312       0.61542084       0.87776971
          0.84812502      -0.75625002       0.11687842       0.00189972       0.61685883       0.81132415
          0.84812502      -0.68750001       0.13023888      -0.00824397       0.61944788       0.73642671
          0.84812502      -0.61875001       0.14155224      -0.01914215       0.62365673       0.65400316
          0.84812502      -0.55000001       0.14966680      -0.03074969       0.62995474       0.56563641
          0.84812502      -0.48125001       0.15334791      -0.04292803       0.63871126       0.47363441
          0.84812502      -0.41250001       0.15137367      -0.05540567       0.64999821       0.38105606
          0.84812502      -0.34375001       0.14270584      -0.06774912       0.66338944       0.29165466
          0.84812502      -0.27500001       0.12670693      -0.07936198       0.67792069       0.20970273
          0.84812502      -0.20625000       0.10336179      -0.08952664       0.69210042       0.13968090
          0.84812502      -0.13750000       0.07343841      -0.09749104       0.70412460       0.08584759
          0.84812502      -0.06875000       0.03852223      -0.10258710       0.71225223       0.05174638
          0.84812502       0.00000000       0.00088376      -0.10435248       0.71520831       0.03974225
          0.84812502       0.06875000      -0.03681238      -0.10262166       0.71251111       0.05068769
          0.84812502       0.13750000      -0.07189558      -0.09755898       0.70460175       0.08379883
          0.84812502       0.20625000      -0.10207837      -0.08962339       0.69272504       0.13677232
          0.84812502       0.27500001      -0.12574982      -0.07947615       0.67860779       0.20611311
          0.84812502       0.34375001      -0.14211129      -0.06785938       0.66405783       0.28759422
          0.84812502       0.41250001      -0.15114565      -0.05547953       0.65058650       0.37674717
          0.84812502       0.48125001      -0.15345986      -0.04292367       0.63918385       0.46929245
          0.84812502       0.55000001      -0.15006627      -0.03062102       0.63030249       0.56145252
          0.84812502       0.61875001      -0.14216803      -0.01884622       0.62389247       0.65013063
          0.84812502       0.68750001      -0.13099000      -0.00774944       0.61959446       0.73297226
          0.84812502       0.75625002      -0.11768468       0.00260473       0.61694133       0.80834513
          0.84812502       0.82500002      -0.10327142       0.01220614       0.61546155       0.87527826
          0.84812502       0.89375002      -0.08874378       0.02108934       0.61475452       0.93339557
          0.84812502       0.96250002      -0.07478370       0.02936493       0.61451778       0.98287171
          0.84812502       1.03125002      -0.06304937       0.03733657       0.61450518       1.02441648
          0.84812502       1.10000002      -0.05576609       0.04654257       0.61450518       1.06013018
          0.84812502       1.16875003      -0.05378146       0.05810544       0.61450518       1.09302515
          0.84812502       1.23750003      -0.05982048       0.07457048       0.61450518       1.12688528
          0.84812502       1.30625003      -0.07360317       0.10224212       0.61450518       1.16703768
          0.84812502       1.37500003      -0.11210741       0.16009955       0.61450518       1.22101726
          0.84812502       1.44375003      -0.09502117       0.30996416       0.61450518       1.29159153
          0.84812502       1.51250003       0.10285377       0.42640027       0.61450518       1.29960615
          0.84812502       1.58125003       0.21265799       0.22965706       0.61450518       1.18480111
          0.84812502       1.65000004       0.15249563       0.15536287       0.61450518       1.07636112
          0.84812502       1.71875004       0.11200762       0.12501995       0.61450511       0.99614011
          0.84812502       1.78750004       0.07667797       0.10459438       0.61470698       0.93966582
          0.84812502       1.85625004       0.05255031       0.08599821       0.61508705       0.90101315
          0.84812502       1.92500004       0.03797838       0.07019434       0.61548134       0.87409253
          0.84812502       1.99375004       0.02438743       0.05881333       0.61583366       0.85481897
          0.84812502       2.06250004       0.01559212       0.04394127       0.61606712       0.84358855
          0.84812502       2.13125005       0.01456407       0.03450006       0.61627482       0.83436729
          0.84812502       2.20000005       0.01174044       0.02778542       0.61646830       0.82631224
          0.87843752      -2.20000005    -113.85192406       0.02792368       0.59512282       0.82939813
          0.87843752      -2.13125005      -0.01566067       0.03492013       0.59491841       0.83844513
          0.87843752      -2.06250004      -0.01936888       0.04478597       0.59469006       0.84935290
          0.87843752      -1.99375004      -0.02918888       0.05907687       0.59441325       0.86401924
          0.87843752      -1.92500004      -0.04319043       0.06798080       0.59404908       0.88684167
          0.87843752      -1.85625004      -0.06028171       0.08049790       0.59366751       0.91884330
          0.87843752      -1.78750004      -0.08414959       0.09463404       0.59336491       0.96387584
          0.87843752      -1.71875004      -0.12547213       0.10998420       0.59330027       1.02804978
          0.87843752      -1.65000004      -0.15874449       0.13455963       0.59330027       1.11958513
          0.87843752      -1.58125003      -0.31795000       0.20897682       0.59330027       1.25350740
          0.87843752      -1.51250003      -0.11186701       0.54100432       0.59330027       1.44205211
          0.87843752      -1.44375003       0.21402783       0.28355506       0.59330027       1.36878476
          0.87843752      -1.37500003       0.13771353       0.13173966       0.59330027       1.25766404
          0.87843752      -1.30625003       0.08326752       0.08800610       0.59330027       1.19146490
          0.87843752      -1.23750003       0.06405727       0.06792542       0.59330027       1.14584658
          0.87843752      -1.16875003       0.05619006       0.05588644       0.59330027       1.10873997
          0.87843752      -1.10000002       0.05708711       0.04721102       0.59330027       1.07352942
          0.87843752      -1.03125002       0.06344141       0.04019989       0.59330027       1.03598894
          0.87843752      -0.96250002       0.07450124       0.03424842       0.59330134       0.99296471
          0.87843752      -0.89375002       0.08814408       0.02824521       0.59347942       0.94199452
          0.87843752      -0.82500002       0.10236231       0.02175049       0.59411560       0.88227643
          0.87843752      -0.75625002       0.11654045       0.01472798       0.59551297       0.81359956
          0.87843752      -0.68750001       0.12972283       0.00716212       0.59807768       0.73629620
          0.87843752      -0.61875001       0.14092855      -0.00096046       0.60229525       0.65128842
          0.87843752      -0.55000001       0.14902108      -0.00963301       0.60865655       0.56016621
          0.87843752      -0.48125001       0.15276670      -0.01879184       0.61755530       0.46526509
          0.87843752      -0.41250001       0.15092595      -0.02827065       0.62907668       0.36970351
          0.87843752      -0.34375001       0.14242659      -0.03776144       0.64279621       0.27733558
          0.87843752      -0.27500001       0.12658862      -0.04680124       0.65772955       0.19257777
          0.87843752      -0.20625000       0.10335848      -0.05480108       0.67233332       0.12008820
          0.87843752      -0.13750000       0.07348258      -0.06112182       0.68473758       0.06431424
          0.87843752      -0.06875000       0.03854930      -0.06518374       0.69313061       0.02896895
          0.87843752       0.00000000       0.00085564      -0.06658176       0.69618198       0.01653508
          0.87843752       0.06875000      -0.03689325      -0.06517195       0.69338917       0.02790718
          0.87843752       0.13750000      -0.07198712      -0.06110256       0.68521428       0.06225892
          0.87843752       0.20625000      -0.10211428      -0.05477954       0.67295715       0.11716948
          0.87843752       0.27500001      -0.12566384      -0.04677776       0.65841507       0.18897597
          0.87843752       0.34375001      -0.14186136      -0.03772582       0.64346124       0.27326521
          0.87843752       0.41250001      -0.15072949      -0.02819889       0.62965925       0.36539462
          0.87843752       0.48125001      -0.15291734      -0.01864689       0.61801962       0.46094375
          0.87843752       0.55000001      -0.14946924      -0.00936991       0.60899379       0.55603593
          0.87843752       0.61875001      -0.14160269      -0.00053488       0.60251937       0.64751431
          0.87843752       0.68750001      -0.13053778       0.00778364       0.59821300       0.73299375
          0.87843752       0.75625002      -0.11740856       0.01555796       0.59558583       0.81082939
          0.87843752       0.82500002      -0.10320650       0.02277305       0.59414918       0.88004682
          0.87843752       0.89375002      -0.08891519       0.02941552       0.59349098       0.94027303
          0.87843752       0.96250002      -0.07519344       0.03550643       0.59330212       0.99170116
          0.87843752       1.03125002      -0.06404026       0.04144197       0.59330027       1.03513272
          0.87843752       1.10000002      -0.05773418       0.04842690       0.59330027       1.07304667
          0.87843752       1.16875003      -0.05689686       0.05711370       0.59330027       1.10869785
          0.87843752       1.23750003      -0.06586721       0.06930893       0.59330027       1.14646858
          0.87843752       1.30625003      -0.08405102       0.09000615       0.59330027       1.19324794
          0.87843752       1.37500003      -0.14909021       0.13629892       0.59330027       1.26169813
          0.87843752       1.44375003      -0.19921635       0.30377665       0.59330027       1.37714896
          0.87843752       1.51250003       0.13245483       0.51880443       0.59330027       1.43177411
          0.87843752       1.58125003       0.30733683       0.19857921       0.59330027       1.24377695
          0.87843752       1.65000004       0.15146678       0.13094001       0.59330027       1.11539987
          0.87843752       1.71875004       0.12029108       0.10724047       0.59330027       1.02770749
          0.87843752       1.78750004       0.08041148       0.09171933       0.59335580       0.96632636
          0.87843752       1.85625004       0.05784782       0.07745249       0.59362645       0.92321909
          0.87843752       1.92500004       0.04146075       0.06488446       0.59397131       0.89247070
          0.87843752       1.99375004       0.02891333       0.05492132       0.59430326       0.87040796
          0.87843752       2.06250004       0.02059908       0.04222048       0.59457337       0.85531678
          0.87843752       2.13125005       0.01692248       0.03337323       0.59480806       0.84359888
          0.87843752       2.20000005       0.01418071       0.02697005       0.59501948       0.83389378
          0.90875002      -2.20000005    -110.05713877       0.02679275       0.57510380       0.83704778
          0.90875002      -2.13125005      -0.01850925       0.03345920       0.57487836       0.84807180
          0.90875002      -2.06250004      -0.02357148       0.04214789       0.57462787       0.86159236
          0.90875002      -1.99375004      -0.03289746       0.05234066       0.57433750       0.87958237
          0.90875002      -1.92500004      -0.04591449       0.06168853       0.57400631       0.90508126
          0.90875002      -1.85625004      -0.06376847       0.07149410       0.57369476       0.94021113
          0.90875002      -1.78750004      -0.08529065       0.08147853       0.57351426       0.98862611
          0.90875002      -1.71875004      -0.13177925       0.09085238       0.57350999       1.05629142
          0.90875002      -1.65000004      -0.14805443       0.10304379       0.57350999       1.15309968
          0.90875002      -1.58125003      -0.41809365       0.13897334       0.57350999       1.30330403
          0.90875002      -1.51250003      -0.12957191       0.33024806       0.57350999       1.57484801
          0.90875002      -1.44375003       0.32368042       0.17611589       0.57350999       1.43581964
          0.90875002      -1.37500003       0.15273759       0.09539692       0.57350999       1.28981390
          0.90875002      -1.30625003       0.09043299       0.07254047       0.57350999       1.21411773
          0.90875002      -1.23750003       0.06677339       0.06175328       0.57350999       1.16410204
          0.90875002      -1.16875003       0.05789482       0.05446416       0.57350999       1.12426994
          0.90875002      -1.10000002       0.05796351       0.04876887       0.57350999       1.08703758
          0.90875002      -1.03125002       0.06365909       0.04394552       0.57350999       1.04783448
          0.90875002      -0.96250002       0.07409757       0.03984729       0.57350999       1.00340224
          0.90875002      -0.89375002       0.08740908       0.03607523       0.57363028       0.95105768
          0.90875002      -0.82500002       0.10137690       0.03182920       0.57419335       0.88983070
          0.90875002      -0.75625002       0.11526540       0.02721990       0.57550270       0.81951939
          0.90875002      -0.68750001       0.12820184       0.02227812       0.57796615       0.74045825
          0.90875002      -0.61875001       0.13923348       0.01698991       0.58207564       0.65356556
          0.90875002      -0.55000001       0.14725770       0.01131938       0.58833362       0.56042729
          0.90875002      -0.48125001       0.15105443       0.00524911       0.59715060       0.46338554
          0.90875002      -0.41250001       0.14937726      -0.00116665       0.60863052       0.36558989
          0.90875002      -0.34375001       0.14112561      -0.00775123       0.62236367       0.27096262
          0.90875002      -0.27500001       0.12557760      -0.01417814       0.63736910       0.18403114
          0.90875002      -0.20625000       0.10263730      -0.01998695       0.65208588       0.10960107
          0.90875002      -0.13750000       0.07302190      -0.02464886       0.66461374       0.05228380
          0.90875002      -0.06875000       0.03831221      -0.02766917       0.67310156       0.01594333
          0.90875002       0.00000000       0.00081914      -0.02869741       0.67618664       0.00316856
          0.90875002       0.06875000      -0.03672555      -0.02761050       0.67335363       0.01489151
          0.90875002       0.13750000      -0.07158618      -0.02454194       0.66507832       0.05024630
          0.90875002       0.20625000      -0.10144019      -0.01984769       0.65269386       0.10670509
          0.90875002       0.27500001      -0.12468828      -0.01401968       0.63803630       0.18045514
          0.90875002       0.34375001      -0.14058886      -0.00757535       0.62300968       0.26692227
          0.90875002       0.41250001      -0.14920899      -0.00095808       0.60919345       0.36132078
          0.90875002       0.48125001      -0.15123948       0.00552310       0.59759545       0.45912355
          0.90875002       0.55000001      -0.14775072       0.01170367       0.58865205       0.55638851
          0.90875002       0.61875001      -0.13996333       0.01753178       0.58228265       0.64992796
          0.90875002       0.68750001      -0.12907912       0.02301498       0.57808692       0.73734725
          0.90875002       0.75625002      -0.11619398       0.02816666       0.57556415       0.81699943
          0.90875002       0.82500002      -0.10226654       0.03296730       0.57421924       0.88790518
          0.90875002       0.89375002      -0.08820458       0.03735025       0.57363774       0.94968025
          0.90875002       0.96250002      -0.07477367       0.04117615       0.57350999       1.00250357
          0.90875002       1.03125002      -0.06420191       0.04521425       0.57350999       1.04733141
          0.90875002       1.10000002      -0.05859127       0.04993967       0.57350999       1.08689052
          0.90875002       1.16875003      -0.05846591       0.05553251       0.57350999       1.12455088
          0.90875002       1.23750003      -0.06898514       0.06277027       0.57350999       1.16506317
          0.90875002       1.30625003      -0.09004777       0.07370318       0.57350999       1.21635231
          0.90875002       1.37500003      -0.17093865       0.09789141       0.57350999       1.29485667
          0.90875002       1.44375003      -0.30213544       0.18741107       0.57350999       1.44905731
          0.90875002       1.51250003       0.15793909       0.31675029       0.57350999       1.55905297
          0.90875002       1.58125003       0.40030948       0.13346464       0.57350999       1.29118717
          0.90875002       1.65000004       0.14094253       0.10093236       0.57350999       1.14809304
          0.90875002       1.71875004       0.12664732       0.08887756       0.57350999       1.05528356
          0.90875002       1.78750004       0.08184964       0.07915775       0.57351274       0.99034162
          0.90875002       1.85625004       0.06142880       0.06890882       0.57367179       0.94379614
          0.90875002       1.92500004       0.04445153       0.05891072       0.57395411       0.90988152
          0.90875002       1.99375004       0.03255314       0.04938940       0.57425920       0.88501353
          0.90875002       2.06250004       0.02425069       0.03977880       0.57453785       0.86686002
          0.90875002       2.13125005       0.01947286       0.03186208       0.57478791       0.85278143
          0.90875002       2.20000005       0.01666050       0.02554330       0.57501732       0.84116526
          0.93906252      -2.20000005    -106.50676051       0.02587202       0.55638551       0.84474143
          0.93906252      -2.13125005      -0.02099616       0.03163767       0.55614887       0.85754439
          0.93906252      -2.06250004      -0.02672191       0.03911449       0.55588930       0.87341257
          0.93906252      -1.99375004      -0.03575070       0.04755520       0.55560461       0.89411594
          0.93906252      -1.92500004      -0.04808341       0.05533773       0.55531213       0.92209169
          0.93906252      -1.85625004      -0.06544611       0.06275866       0.55507393       0.95971865
          0.93906252      -1.78750004      -0.08557791       0.06894153       0.55499736       1.01047200
          0.93906252      -1.71875004      -0.13015747       0.07202408       0.55499736       1.07994024
          0.93906252      -1.65000004      -0.14394397       0.06934743       0.55499736       1.17812748
          0.93906252      -1.58125003      -0.41557934       0.04883513       0.55499736       1.33059319
          0.93906252      -1.51250003      -0.12661118      -0.07891286       0.55499736       1.61011564
          0.93906252      -1.44375003       0.32730751       0.01429908       0.55499736       1.46350961
          0.93906252      -1.37500003       0.15352357       0.05376310       0.55499736       1.31149392
          0.93906252      -1.30625003       0.09078157       0.05656707       0.55499736       1.23282136
          0.93906252      -1.23750003       0.06678450       0.05516330       0.55499736       1.18109901
          0.93906252      -1.16875003       0.05797981       0.05280359       0.55499736       1.13986975
          0.93906252      -1.10000002       0.05779841       0.05011761       0.55499736       1.10142241
          0.93906252      -1.03125002       0.06313115       0.04743308       0.55499736       1.06113128
          0.93906252      -0.96250002       0.07293602       0.04510463       0.55499736       1.01576577
          0.93906252      -0.89375002       0.08581165       0.04344435       0.55506241       0.96263978
          0.93906252      -0.82500002       0.09954091       0.04141997       0.55552870       0.90050392
          0.93906252      -0.75625002       0.11306365       0.03921553       0.55670644       0.82920431
          0.93906252      -0.68750001       0.12568251       0.03690326       0.55899519       0.74909069
          0.93906252      -0.61875001       0.13647026       0.03446503       0.56288198       0.66107676
          0.93906252      -0.55000001       0.14437932       0.03181681       0.56886947       0.56673119
          0.93906252      -0.48125001       0.14821560       0.02885311       0.57737676       0.46837831
          0.93906252      -0.41250001       0.14673595       0.02550924       0.58853183       0.36916623
          0.93906252      -0.34375001       0.13881567       0.02182609       0.60195320       0.27304889
          0.93906252      -0.27500001       0.12368986       0.01799360       0.61668757       0.18462864
          0.93906252      -0.20625000       0.10121470       0.01434838       0.63119406       0.10882673
          0.93906252      -0.13750000       0.07206986       0.01131685       0.64357755       0.05039315
          0.93906252      -0.06875000       0.03781856       0.00931704       0.65198215       0.01332430
          0.93906252       0.00000000       0.00077433       0.00865086       0.65503619       0.00030371
          0.93906252       0.06875000      -0.03631667       0.00942258       0.65222115       0.01229639
          0.93906252       0.13750000      -0.07070576       0.01151082       0.64401862       0.04839950
          0.93906252       0.20625000      -0.10007169       0.01460318       0.63177116       0.10598822
          0.93906252       0.27500001      -0.12283792       0.01828217       0.61732085       0.18111789
          0.93906252       0.34375001      -0.13830518       0.02213389       0.60256491       0.26907922
          0.93906252       0.41250001      -0.14659124       0.02584264       0.58906215       0.36497637
          0.93906252       0.48125001      -0.14842994       0.02924117       0.57779180       0.46421309
          0.93906252       0.55000001      -0.14491317       0.03230568       0.56916185       0.56281992
          0.93906252       0.61875001      -0.13725377       0.03510677       0.56306714       0.65761181
          0.93906252       0.68750001      -0.12662218       0.03774137       0.55909869       0.74620918
          0.93906252       0.75625002      -0.11405305       0.04026953       0.55675559       0.82697564
          0.93906252       0.82500002      -0.10047579       0.04267010       0.55554694       0.89892588
          0.93906252       0.89375002      -0.08661960       0.04482511       0.55506621       0.96164857
          0.93906252       0.96250002      -0.07357896       0.04650084       0.55499736       1.01526265
          0.93906252       1.03125002      -0.06360718       0.04873516       0.55499736       1.06100182
          0.93906252       1.10000002      -0.05833979       0.05124625       0.55499736       1.10160954
          0.93906252       1.16875003      -0.05845650       0.05370603       0.55499736       1.14043720
          0.93906252       1.23750003      -0.06889427       0.05585703       0.55499736       1.18230482
          0.93906252       1.30625003      -0.09033860       0.05707619       0.55499736       1.23528244
          0.93906252       1.37500003      -0.17196325       0.05372904       0.55499736       1.31689642
          0.93906252       1.44375003      -0.30524001       0.00798873       0.55499736       1.47742444
          0.93906252       1.51250003       0.15520287      -0.06999666       0.55499736       1.59352127
          0.93906252       1.58125003       0.39752048       0.05135802       0.55499736       1.31805166
          0.93906252       1.65000004       0.13726119       0.06912100       0.55499736       1.17278087
          0.93906252       1.71875004       0.12537750       0.07086333       0.55499736       1.07847737
          0.93906252       1.78750004       0.08243761       0.06716973       0.55499736       1.01159401
          0.93906252       1.85625004       0.06328437       0.06059719       0.55506248       0.96261460
          0.93906252       1.92500004       0.04678440       0.05292936       0.55527822       0.92613841
          0.93906252       1.99375004       0.03534974       0.04501881       0.55554907       0.89874593
          0.93906252       2.06250004       0.02708837       0.03698200       0.55582065       0.87802617
          0.93906252       2.13125005       0.02165082       0.03005192       0.55607579       0.86179006
          0.93906252       2.20000005       0.01806339       0.02492765       0.55631193       0.84857953
          0.96937503      -2.20000005    -103.17839937       0.02404004       0.53884992       0.85224598
          0.96937503      -2.13125005      -0.02308548       0.02957266       0.53860788       0.86674113
          0.96937503      -2.06250004      -0.02911966       0.03595375       0.53834921       0.88468643
          0.96937503      -1.99375004      -0.03785709       0.04282020       0.53808103       0.90767393
          0.96937503      -1.92500004      -0.04959385       0.04921581       0.53783106       0.93778241
          0.96937503      -1.85625004      -0.06561101       0.05452206       0.53766349       0.97731216
          0.96937503      -1.78750004      -0.08511065       0.05739370       0.53764251       1.02940844
          0.96937503      -1.71875004      -0.12104798       0.05480778       0.53764251       1.09891963
          0.96937503      -1.65000004      -0.14519551       0.03922300       0.53764251       1.19425011
          0.96937503      -1.58125003      -0.31475980      -0.02309066       0.53764251       1.33345682
          0.96937503      -1.51250003      -0.10264412      -0.32769852       0.53764251       1.54190175
          0.96937503      -1.44375003       0.22957794      -0.10240845       0.53764251       1.44783310
          0.96937503      -1.37500003       0.13834108       0.01671368       0.53764251       1.32180264
          0.96937503      -1.30625003       0.08484532       0.04221405       0.53764251       1.24762605
          0.96937503      -1.23750003       0.06452323       0.04882934       0.53764251       1.19670129
          0.96937503      -1.16875003       0.05641627       0.05125828       0.53764251       1.15549106
          0.96937503      -1.10000002       0.05668753       0.05142317       0.53764251       1.11667365
          0.96937503      -1.03125002       0.06189052       0.05074112       0.53764251       1.07588307
          0.96937503      -0.96250002       0.07110297       0.05009154       0.53764251       1.03007615
          0.96937503      -0.89375002       0.08344075       0.05028497       0.53766472       0.97673713
          0.96937503      -0.82500002       0.09687673       0.05040194       0.53801623       0.91431922
          0.96937503      -0.75625002       0.10996403       0.05055619       0.53902578       0.84271514
          0.96937503      -0.68750001       0.12218615       0.05083976       0.54107497       0.76230018
          0.96937503      -0.61875001       0.13265932       0.05122593       0.54463403       0.67398142
          0.96937503      -0.55000001       0.14040710       0.05157581       0.55019476       0.57929416
          0.96937503      -0.48125001       0.14427520       0.05168797       0.55817516       0.48051678
          0.96937503      -0.41250001       0.14303257       0.05137152       0.56873138       0.38075909
          0.96937503      -0.34375001       0.13553270       0.05052801       0.58152352       0.28396634
          0.96937503      -0.27500001       0.12096392       0.04921366       0.59565008       0.19477767
          0.96937503      -0.20625000       0.09912690       0.04765080       0.60962732       0.11819787
          0.96937503      -0.13750000       0.07065473       0.04617717       0.62160237       0.05909121
          0.96937503      -0.06875000       0.03708389       0.04514785       0.62974750       0.02156977
          0.96937503       0.00000000       0.00072133       0.04482586       0.63270701       0.00840160
          0.96937503       0.06875000      -0.03568175       0.04529991       0.62996807       0.02058061
          0.96937503       0.13750000      -0.06937343       0.04645689       0.62200940       0.05716882
          0.96937503       0.20625000      -0.09804390       0.04801776       0.61016033       0.11545293
          0.96937503       0.27500001      -0.12014987       0.04962572       0.59623512       0.19137243
          0.96937503       0.34375001      -0.13504472       0.05095702       0.58208735       0.28010773
          0.96937503       0.41250001      -0.14290545       0.05181489       0.56921804       0.37668639
          0.96937503       0.48125001      -0.14451285       0.05217193       0.55855215       0.47648311
          0.96937503       0.55000001      -0.14097760       0.05214937       0.55045563       0.57554307
          0.96937503       0.61875001      -0.13349519       0.05194801       0.54479418       0.67072190
          0.96937503       0.68750001      -0.12318998       0.05176254       0.54115982       0.75968368
          0.96937503       0.75625002      -0.11101768       0.05170650       0.53906233       0.84081792
          0.96937503       0.82500002      -0.09785895       0.05176134       0.53802732       0.91313327
          0.96937503       0.89375002      -0.08425519       0.05177721       0.53766594       0.97617734
          0.96937503       0.96250002      -0.07169878       0.05157920       0.53764251       1.03000586
          0.96937503       1.03125002      -0.06228310       0.05209142       0.53764251       1.07615158
          0.96937503       1.10000002      -0.05708488       0.05252102       0.53764251       1.11719478
          0.96937503       1.16875003      -0.05680244       0.05200874       0.53764251       1.15630593
          0.96937503       1.23750003      -0.06615458       0.04896682       0.53764251       1.19804683
