<?xml version="1.0" encoding="utf-8" ?>
<NEKTAR>
  <POINTS DIM="2" FIELDS="Bx,By,Bz,Psi">
          1.33312504e+03       1.37500003e+03       0.05599526       0.09178376       0       1.38365767
          1.33312504e+03       1.44375003e+03       0.04857476       0.15911341       0       1.32082270
          1.33312504e+03       1.51250003e+03       0.00819689       0.11384084       0       1.30164315
          1.33312504e+03       1.58125003e+03       0.03231626       0.06012856       0       1.28475457
          1.33312504e+03       1.65000004e+03       0.05452717       0.03468699       0       1.24072853
          1.33312504e+03       1.71875004e+03       0.05771397       0.02051967       0       1.18698775
          1.33312504e+03       1.78750004e+03       0.05631505       0.01237298       0       1.13231398
          1.33312504e+03       1.85625004e+03       0.05157214       0.00747169       0       1.08084233
          1.33312504e+03       1.92500004e+03       0.04563083       0.00441766       0       1.03451684
          1.33312504e+03       1.99375004e+03       0.03929063       0.00254486       0       0.99410194
          1.33312504e+03       2.06250004e+03       0.03319795       0.00150736       0       0.95964113
          1.33312504e+03       2.13125005e+03       0.02767086       0.00106948       0       0.93072388
          1.33312504e+03       2.20000005e+03       0.02279421       0.00072784       0       0.90675803
          1.36343754e+03      -2.20000005e+03     -73.36575574      -0.00011860       0       0.90908003
          1.36343754e+03      -2.13125005e+03      -0.02665983      -0.00049390       0       0.93256434
          1.36343754e+03      -2.06250004e+03      -0.03243384      -0.00043456       0       0.96125949
          1.36343754e+03      -1.99375004e+03      -0.03889112       0.00033583       0       0.99593398
          1.36343754e+03      -1.92500004e+03      -0.04567515       0.00215045       0       1.03708560
          1.36343754e+03      -1.85625004e+03      -0.05225913       0.00547540       0       1.08479748
          1.36343754e+03      -1.78750004e+03      -0.05799955       0.01117993       0       1.13855914
          1.36343754e+03      -1.71875004e+03      -0.06149697       0.02112302       0       1.19699338
          1.36343754e+03      -1.65000004e+03      -0.06147470       0.03924372       0       1.25715014
          1.36343754e+03      -1.58125003e+03      -0.04862394       0.07315151       0       1.31252035
          1.36343754e+03      -1.51250003e+03      -0.03507777       0.13437554       0       1.35159413
          1.36343754e+03      -1.44375003e+03      -0.03938299       0.15341868       0       1.38660863
          1.36343754e+03      -1.37500003e+03      -0.03127814       0.10217103       0       1.42424485
          1.36343754e+03      -1.30625003e+03      -0.01641140       0.08001346       0       1.44531221
          1.36343754e+03      -1.23750003e+03      -0.01499090       0.08157113       0       1.46056070
          1.36343754e+03      -1.16875003e+03      -0.00443854       0.09857996       0       1.47153589
          1.36343754e+03      -1.10000002e+03       0.02078397       0.10959135       0       1.46444203
          1.36343754e+03      -1.03125002e+03       0.04325652       0.10149476       0       1.43196235
          1.36343754e+03      -0.96250002e+03       0.04753107       0.08922454       0       1.38612780
          1.36343754e+03      -0.89375002e+03       0.03877390       0.08719918       0       1.34364923
          1.36343754e+03      -0.82500002e+03       0.03081255       0.08957159       0       1.31037770
          1.36343754e+03      -0.75625002e+03       0.02538550       0.10094264       0       1.28283556
          1.36343754e+03      -0.68750001e+03       0.01965714       0.11801735       0       1.26105052
          1.36343754e+03      -0.61875001e+03       0.01580021       0.14058529       0       1.24395631
          1.36343754e+03      -0.55000001e+03       0.01525598       0.16805801       0       1.22921293
          1.36343754e+03      -0.48125001e+03       0.02057471       0.19789940       0       1.21235078
          1.36343754e+03      -0.41250001e+03       0.03275131       0.22439136       0       1.18692911
          1.36343754e+03      -0.34375001e+03       0.04781075       0.24090606       0       1.14764930
          1.36343754e+03      -0.27500001e+03       0.05784607       0.24548123       0       1.09547303
          1.36343754e+03      -0.20625000e+03       0.05678355       0.24294918       0       1.03862559
          1.36343754e+03      -0.13750000e+03       0.04435812       0.23862883       0       0.98860404
          1.36343754e+03      -0.06875000e+03       0.02379273       0.23569156       0       0.95490278
          1.36343754e+03       0.00000000e+03      -0.00085451       0.23504132       0       0.94360470
          1.36343754e+03       0.06875000e+03      -0.02531305       0.23676395       0       0.95650525
          1.36343754e+03       0.13750000e+03      -0.04522922       0.24067742       0       0.99141462
          1.36343754e+03       0.20625000e+03      -0.05655065       0.24560817       0       1.04177651
          1.36343754e+03       0.27500001e+03      -0.05630021       0.24791463       0       1.09776236
          1.36343754e+03       0.34375001e+03      -0.04544198       0.24207258       0       1.14794949
          1.36343754e+03       0.41250001e+03      -0.03072675       0.22393161       0       1.18498523
          1.36343754e+03       0.48125001e+03      -0.01980432       0.19642010       0       1.20900449
          1.36343754e+03       0.55000001e+03      -0.01587883       0.16642091       0       1.22581426
          1.36343754e+03       0.61875001e+03      -0.01745687       0.13926891       0       1.24170606
          1.36343754e+03       0.68750001e+03      -0.02224902       0.11713020       0       1.26084533
          1.36343754e+03       0.75625002e+03      -0.02833394       0.10040638       0       1.28544387
          1.36343754e+03       0.82500002e+03      -0.03684153       0.08903781       0       1.31679699
          1.36343754e+03       0.89375002e+03      -0.04252263       0.08116803       0       1.35625626
          1.36343754e+03       0.96250002e+03      -0.04510020       0.08708667       0       1.39858045
          1.36343754e+03       1.03125002e+03      -0.03923214       0.10192912       0       1.44132470
          1.36343754e+03       1.10000002e+03      -0.01586240       0.10907459       0       1.46928526
          1.36343754e+03       1.16875003e+03       0.00706201       0.09585622       0       1.47235292
          1.36343754e+03       1.23750003e+03       0.01461958       0.07966688       0       1.46052217
          1.36343754e+03       1.30625003e+03       0.01553418       0.08018957       0       1.44604457
          1.36343754e+03       1.37500003e+03       0.03104414       0.10426995       0       1.42554136
          1.36343754e+03       1.44375003e+03       0.03842647       0.15484643       0       1.38823975
          1.36343754e+03       1.51250003e+03       0.03597782       0.12832495       0       1.35391605
          1.36343754e+03       1.58125003e+03       0.05083144       0.07003374       0       1.31257728
          1.36343754e+03       1.65000004e+03       0.06194113       0.03760297       0       1.25616335
          1.36343754e+03       1.71875004e+03       0.06168418       0.02016472       0       1.19566782
          1.36343754e+03       1.78750004e+03       0.05796299       0.01050067       0       1.13718986
          1.36343754e+03       1.85625004e+03       0.05221006       0.00488489       0       1.08347455
          1.36343754e+03       1.92500004e+03       0.04567919       0.00156297       0       1.03579055
          1.36343754e+03       1.99375004e+03       0.03900915      -0.00028500       0       0.99458342
          1.36343754e+03       2.06250004e+03       0.03268788      -0.00110203       0       0.95972750
          1.36343754e+03       2.13125005e+03       0.02712774      -0.00120701       0       0.93069392
          1.36343754e+03       2.20000005e+03       0.02256996      -0.00082882       0       0.90658519
          1.39375004e+03      -2.20000005e+03     -71.76974740      -0.00207951       0       0.90863670
          1.39375004e+03      -2.13125005e+03      -0.02589471      -0.00288423       0       0.93183059
          1.39375004e+03      -2.06250004e+03      -0.03182119      -0.00319333       0       0.96047322
          1.39375004e+03      -1.99375004e+03      -0.03854341      -0.00268630       0       0.99542705
          1.39375004e+03      -1.92500004e+03      -0.04576459      -0.00096023       0       1.03735021
          1.39375004e+03      -1.85625004e+03      -0.05307860       0.00250287       0       1.08654137
          1.39375004e+03      -1.78750004e+03      -0.06006907       0.00862485       0       1.14288322
          1.39375004e+03      -1.71875004e+03      -0.06632530       0.01943305       0       1.20585101
          1.39375004e+03      -1.65000004e+03      -0.07100067       0.03953010       0       1.27436356
          1.39375004e+03      -1.58125003e+03      -0.07088480       0.07826006       0       1.34557163
          1.39375004e+03      -1.51250003e+03      -0.05603430       0.13957835       0       1.41055525
          1.39375004e+03      -1.44375003e+03      -0.02811517       0.15658166       0       1.45275958
          1.39375004e+03      -1.37500003e+03      -0.01073206       0.10775796       0       1.47000672
          1.39375004e+03      -1.30625003e+03      -0.01156500       0.07974846       0       1.48016163
          1.39375004e+03      -1.23750003e+03      -0.02108868       0.08055348       0       1.49590690
          1.39375004e+03      -1.16875003e+03      -0.01449465       0.11280723       0       1.51678723
          1.39375004e+03      -1.10000002e+03       0.02061676       0.12738303       0       1.51529554
          1.39375004e+03      -1.03125002e+03       0.05079779       0.10868530       0       1.47738993
          1.39375004e+03      -0.96250002e+03       0.05101501       0.08543190       0       1.42413393
          1.39375004e+03      -0.89375002e+03       0.03743860       0.08196165       0       1.38043218
          1.39375004e+03      -0.82500002e+03       0.02707600       0.08615940       0       1.34855525
          1.39375004e+03      -0.75625002e+03       0.01837794       0.09777472       0       1.32599169
          1.39375004e+03      -0.68750001e+03       0.01046836       0.11530508       0       1.31171679
          1.39375004e+03      -0.61875001e+03       0.00411237       0.13890742       0       1.30464156
          1.39375004e+03      -0.55000001e+03       0.00149811       0.16860215       0       1.30229092
          1.39375004e+03      -0.48125001e+03       0.00653030       0.20206290       0       1.29912352
          1.39375004e+03      -0.41250001e+03       0.02187594       0.23190983       0       1.28587283
          1.39375004e+03      -0.34375001e+03       0.04281779       0.24831707       0       1.25372834
          1.39375004e+03      -0.27500001e+03       0.05784270       0.24849238       0       1.20261692
          1.39375004e+03      -0.20625000e+03       0.05862441       0.23971916       0       1.14333083
          1.39375004e+03      -0.13750000e+03       0.04578901       0.23079464       0       1.09045592
          1.39375004e+03      -0.06875000e+03       0.02430561       0.22566576       0       1.05506734
          1.39375004e+03       0.00000000e+03      -0.00108657       0.22441340       0       1.04337797
          1.39375004e+03       0.06875000e+03      -0.02628414       0.22689188       0       1.05716535
          1.39375004e+03       0.13750000e+03      -0.04707747       0.23321530       0       1.09422937
          1.39375004e+03       0.20625000e+03      -0.05855923       0.24303451       0       1.14777310
          1.39375004e+03       0.27500001e+03      -0.05593672       0.25158626       0       1.20609905
          1.39375004e+03       0.34375001e+03      -0.03965797       0.24968581       0       1.25457192
          1.39375004e+03       0.41250001e+03      -0.01915908       0.23095800       0       1.28362894
          1.39375004e+03       0.48125001e+03      -0.00553071       0.19985001       0       1.29498253
          1.39375004e+03       0.55000001e+03      -0.00221310       0.16637716       0       1.29805669
          1.39375004e+03       0.61875001e+03      -0.00596724       0.13719147       0       1.30173295
          1.39375004e+03       0.68750001e+03      -0.01310519       0.11409748       0       1.31105550
          1.39375004e+03       0.75625002e+03      -0.02164415       0.09685438       0       1.32828044
          1.39375004e+03       0.82500002e+03      -0.03151805       0.08494666       0       1.35457584
          1.39375004e+03       0.89375002e+03      -0.04066521       0.07805042       0       1.39076855
          1.39375004e+03       0.96250002e+03      -0.05103494       0.08459137       0       1.43591580
          1.39375004e+03       1.03125002e+03      -0.04708645       0.11364115       0       1.48759195
          1.39375004e+03       1.10000002e+03      -0.01380719       0.12685321       0       1.51990085
          1.39375004e+03       1.16875003e+03       0.01743576       0.10572523       0       1.51574734
          1.39375004e+03       1.23750003e+03       0.01939932       0.07808246       0       1.49491140
          1.39375004e+03       1.30625003e+03       0.00972293       0.08006074       0       1.48099870
          1.39375004e+03       1.37500003e+03       0.00983815       0.11036786       0       1.47231223
          1.39375004e+03       1.44375003e+03       0.02936452       0.15917733       0       1.45497932
          1.39375004e+03       1.51250003e+03       0.05821987       0.13515206       0       1.41077462
          1.39375004e+03       1.58125003e+03       0.07181293       0.07468689       0       1.34416918
          1.39375004e+03       1.65000004e+03       0.07105259       0.03766294       0       1.27260925
          1.39375004e+03       1.71875004e+03       0.06627612       0.01839045       0       1.20408810
          1.39375004e+03       1.78750004e+03       0.05995828       0.00792704       0       1.14121369
          1.39375004e+03       1.85625004e+03       0.05300709       0.00193047       0       1.08496549
          1.39375004e+03       1.92500004e+03       0.04577440      -0.00150597       0       1.03580906
          1.39375004e+03       1.99375004e+03       0.03867065      -0.00324897       0       0.99381967
          1.39375004e+03       2.06250004e+03       0.03210158      -0.00379025       0       0.95866697
          1.39375004e+03       2.13125005e+03       0.02631874      -0.00351727       0       0.92966831
          1.39375004e+03       2.20000005e+03       0.02137133      -0.00257667       0       0.90600867
          1.42406254e+03      -2.20000005e+03     -70.24164143      -0.00414613       0       0.90722693
          1.42406254e+03      -2.13125005e+03      -0.02499526      -0.00531029       0       0.93001281
          1.42406254e+03      -2.06250004e+03      -0.03107368      -0.00604905       0       0.95842522
          1.42406254e+03      -1.99375004e+03      -0.03812502      -0.00587627       0       0.99353238
          1.42406254e+03      -1.92500004e+03      -0.04585491      -0.00433140       0       1.03618426
          1.42406254e+03      -1.85625004e+03      -0.05396949      -0.00089786       0       1.08691092
          1.42406254e+03      -1.78750004e+03      -0.06225509       0.00526921       0       1.14599177
          1.42406254e+03      -1.71875004e+03      -0.07136368       0.01608988       0       1.21378856
          1.42406254e+03      -1.65000004e+03      -0.08107395       0.03631376       0       1.29131717
          1.42406254e+03      -1.58125003e+03      -0.09577165       0.07747124       0       1.38034670
          1.42406254e+03      -1.51250003e+03      -0.07973768       0.15513376       0       1.47565770
          1.42406254e+03      -1.44375003e+03      -0.01452106       0.17175574       0       1.52582790
          1.42406254e+03      -1.37500003e+03       0.01315327       0.10712364       0       1.51791099
          1.42406254e+03      -1.30625003e+03      -0.00463613       0.07411055       0       1.51448887
          1.42406254e+03      -1.23750003e+03      -0.03143448       0.07384935       0       1.53039213
          1.42406254e+03      -1.16875003e+03      -0.03022214       0.11566734       0       1.56891887
          1.42406254e+03      -1.10000002e+03       0.02312318       0.13074829       0       1.57418115
          1.42406254e+03      -1.03125002e+03       0.06375555       0.10800203       0       1.52620551
          1.42406254e+03      -0.96250002e+03       0.05702247       0.07837518       0       1.46058451
          1.42406254e+03      -0.89375002e+03       0.03519216       0.07555383       0       1.41536440
          1.42406254e+03      -0.82500002e+03       0.02293330       0.08149299       0       1.38577556
          1.42406254e+03      -0.75625002e+03       0.01146857       0.09356387       0       1.36845928
          1.42406254e+03      -0.68750001e+03       0.00119292       0.11148431       0       1.36205066
          1.42406254e+03      -0.61875001e+03      -0.00799568       0.13605626       0       1.36566499
          1.42406254e+03      -0.55000001e+03      -0.01344380       0.16830039       0       1.37704252
          1.42406254e+03      -0.48125001e+03      -0.00935376       0.20675137       0       1.38977089
          1.42406254e+03      -0.41250001e+03       0.00999673       0.24215972       0       1.39089170
          1.42406254e+03      -0.34375001e+03       0.03916968       0.25915564       0       1.36611299
          1.42406254e+03      -0.27500001e+03       0.06081050       0.25311446       0       1.31379110
          1.42406254e+03      -0.20625000e+03       0.06314578       0.23669347       0       1.24899504
          1.42406254e+03      -0.13750000e+03       0.04884598       0.22253873       0       1.19101916
          1.42406254e+03      -0.06875000e+03       0.02554742       0.21462304       0       1.15271430
          1.42406254e+03       0.00000000e+03      -0.00134965       0.21259104       0       1.14028688
          1.42406254e+03       0.06875000e+03      -0.02806730       0.21603211       0       1.15539807
          1.42406254e+03       0.13750000e+03      -0.05067652       0.22542739       0       1.19597064
          1.42406254e+03       0.20625000e+03      -0.06336187       0.24085469       0       1.25508776
          1.42406254e+03       0.27500001e+03      -0.05844224       0.25722806       0       1.31885328
          1.42406254e+03       0.34375001e+03      -0.03486963       0.26069534       0       1.36761090
          1.42406254e+03       0.41250001e+03      -0.00633686       0.24052697       0       1.38808122
          1.42406254e+03       0.48125001e+03       0.01055827       0.20356020       0       1.38444149
          1.42406254e+03       0.55000001e+03       0.01250811       0.16540834       0       1.37167579
          1.42406254e+03       0.61875001e+03       0.00589257       0.13395589       0       1.36190867
          1.42406254e+03       0.68750001e+03      -0.00396267       0.11000471       0       1.36079098
          1.42406254e+03       0.75625002e+03      -0.01471851       0.09235756       0       1.37027219
          1.42406254e+03       0.82500002e+03      -0.02684938       0.08001278       0       1.39118782
          1.42406254e+03       0.89375002e+03      -0.03793268       0.07352119       0       1.42451665
          1.42406254e+03       0.96250002e+03      -0.06058117       0.07841476       0       1.47224547
          1.42406254e+03       1.03125002e+03      -0.06069243       0.11833227       0       1.54007295
          1.42406254e+03       1.10000002e+03      -0.01053358       0.13066911       0       1.57862866
          1.42406254e+03       1.16875003e+03       0.03308787       0.10567003       0       1.56370917
          1.42406254e+03       1.23750003e+03       0.02678235       0.07136536       0       1.52826437
          1.42406254e+03       1.30625003e+03       0.00202590       0.07458128       0       1.51549945
          1.42406254e+03       1.37500003e+03      -0.01508903       0.11060389       0       1.52155470
          1.42406254e+03       1.44375003e+03       0.01818950       0.17123600       0       1.52910413
          1.42406254e+03       1.51250003e+03       0.08359529       0.14946084       0       1.47367677
          1.42406254e+03       1.58125003e+03       0.09537353       0.07357389       0       1.37728481
          1.42406254e+03       1.65000004e+03       0.08063314       0.03440406       0       1.28871794
          1.42406254e+03       1.71875004e+03       0.07106357       0.01505241       0       1.21156092
          1.42406254e+03       1.78750004e+03       0.06205677       0.00459288       0       1.14401601
          1.42406254e+03       1.85625004e+03       0.05386750      -0.00143470       0       1.08508841
          1.42406254e+03       1.92500004e+03       0.04586187      -0.00482842       0       1.03441162
          1.42406254e+03       1.99375004e+03       0.03826160      -0.00637888       0       0.99168871
          1.42406254e+03       2.06250004e+03       0.03135507      -0.00657659       0       0.95636970
          1.42406254e+03       2.13125005e+03       0.02545140      -0.00586731       0       0.92758678
          1.42406254e+03       2.20000005e+03       0.02068972      -0.00490649       0       0.90422601
          1.45437504e+03      -2.20000005e+03     -68.77693668      -0.00596923       0       0.90494326
          1.45437504e+03      -2.13125005e+03      -0.02390087      -0.00777622       0       0.92704782
          1.45437504e+03      -2.06250004e+03      -0.03017028      -0.00901960       0       0.95501389
          1.45437504e+03      -1.99375004e+03      -0.03759992      -0.00926259       0       0.99010807
          1.45437504e+03      -1.92500004e+03      -0.04589244      -0.00798980       0       1.03340136
          1.45437504e+03      -1.85625004e+03      -0.05484688      -0.00473455       0       1.08564817
          1.45437504e+03      -1.78750004e+03      -0.06425951       0.00113730       0       1.14746782
          1.45437504e+03      -1.71875004e+03      -0.07628592       0.01112931       0       1.22000924
          1.45437504e+03      -1.65000004e+03      -0.08956848       0.02938510       0       1.30633582
          1.45437504e+03      -1.58125003e+03      -0.12526164       0.06853911       0       1.41378529
          1.45437504e+03      -1.51250003e+03      -0.11510442       0.17635164       0       1.55061284
          1.45437504e+03      -1.44375003e+03       0.00678521       0.23482210       0       1.61416311
          1.45437504e+03      -1.37500003e+03       0.04759927       0.09688164       0       1.56458450
          1.45437504e+03      -1.30625003e+03       0.00060534       0.06275296       0       1.54570110
          1.45437504e+03      -1.23750003e+03      -0.03997567       0.06078443       0       1.56110754
          1.45437504e+03      -1.16875003e+03      -0.04384569       0.08906082       0       1.61601682
          1.45437504e+03      -1.10000002e+03       0.02496296       0.09783739       0       1.62701084
          1.45437504e+03      -1.03125002e+03       0.07444993       0.08530024       0       1.57086089
          1.45437504e+03      -0.96250002e+03       0.06209256       0.06762575       0       1.49379743
          1.45437504e+03      -0.89375002e+03       0.03212525       0.06827272       0       1.44800044
          1.45437504e+03      -0.82500002e+03       0.01848257       0.07574577       0       1.42142803
          1.45437504e+03      -0.75625002e+03       0.00459223       0.08834232       0       1.40970094
          1.45437504e+03      -0.68750001e+03      -0.00807922       0.10647375       0       1.41146883
          1.45437504e+03      -0.61875001e+03      -0.02049455       0.13175491       0       1.42639148
          1.45437504e+03      -0.55000001e+03      -0.02987858       0.16665260       0       1.45298335
          1.45437504e+03      -0.48125001e+03      -0.02808749       0.21175128       0       1.48457619
          1.45437504e+03      -0.41250001e+03      -0.00382644       0.25554072       0       1.50353868
          1.45437504e+03      -0.34375001e+03       0.03721142       0.27364502       0       1.48671595
          1.45437504e+03      -0.27500001e+03       0.06779767       0.25959223       0       1.42987444
          1.45437504e+03      -0.20625000e+03       0.07087103       0.23302211       0       1.35543474
          1.45437504e+03      -0.13750000e+03       0.05351652       0.21313064       0       1.28975797
          1.45437504e+03      -0.06875000e+03       0.02743086       0.20280581       0       1.24731201
          1.45437504e+03       0.00000000e+03      -0.00163952       0.20016444       0       1.23382176
          1.45437504e+03       0.06875000e+03      -0.03057349       0.20436666       0       1.25066981
          1.45437504e+03       0.13750000e+03      -0.05605818       0.21648404       0       1.29612389
          1.45437504e+03       0.20625000e+03      -0.07159221       0.23826292       0       1.36364904
          1.45437504e+03       0.27500001e+03      -0.06486450       0.26506643       0       1.43710337
          1.45437504e+03       0.34375001e+03      -0.03122781       0.27605325       0       1.48904759
          1.45437504e+03       0.41250001e+03       0.00879040       0.25272215       0       1.49974946
          1.45437504e+03       0.48125001e+03       0.02939055       0.20722147       0       1.47751274
          1.45437504e+03       0.55000001e+03       0.02851763       0.16303444       0       1.44614283
          1.45437504e+03       0.61875001e+03       0.01805770       0.12931975       0       1.42160479
          1.45437504e+03       0.68750001e+03       0.00514165       0.10479390       0       1.40949013
          1.45437504e+03       0.75625002e+03      -0.00776226       0.08695457       0       1.41092223
          1.45437504e+03       0.82500002e+03      -0.02221914       0.07418720       0       1.42614861
          1.45437504e+03       0.89375002e+03      -0.03437305       0.06644305       0       1.45627055
          1.45437504e+03       0.96250002e+03      -0.06936067       0.06735929       0       1.50543936
          1.45437504e+03       1.03125002e+03      -0.07213265       0.09321249       0       1.58917005
          1.45437504e+03       1.10000002e+03      -0.00630656       0.09791011       0       1.63150243
          1.45437504e+03       1.16875003e+03       0.04654638       0.08115123       0       1.60675824
          1.45437504e+03       1.23750003e+03       0.03248522       0.05900899       0       1.55799490
          1.45437504e+03       1.30625003e+03      -0.00370657       0.06332232       0       1.54695211
          1.45437504e+03       1.37500003e+03      -0.05231241       0.10106086       0       1.56998983
          1.45437504e+03       1.44375003e+03       0.00058065       0.26110883       0       1.62046358
          1.45437504e+03       1.51250003e+03       0.12210659       0.16477670       0       1.54502740
          1.45437504e+03       1.58125003e+03       0.12211491       0.06460637       0       1.40893045
          1.45437504e+03       1.65000004e+03       0.08893829       0.02764675       0       1.30290161
          1.45437504e+03       1.71875004e+03       0.07566786       0.01018819       0       1.21733008
          1.45437504e+03       1.78750004e+03       0.06399792       0.00052180       0       1.14519803
          1.45437504e+03       1.85625004e+03       0.05470620      -0.00521855       0       1.08359382
          1.45437504e+03       1.92500004e+03       0.04589509      -0.00843089       0       1.03141597
          1.45437504e+03       1.99375004e+03       0.03773855      -0.00970288       0       0.98805077
          1.45437504e+03       2.06250004e+03       0.03046110      -0.00947841       0       0.95273498
          1.45437504e+03       2.13125005e+03       0.02434486      -0.00825991       0       0.92438618
          1.45437504e+03       2.20000005e+03       0.01946417      -0.00623737       0       0.90174710
          1.48468754e+03      -2.20000005e+03     -67.37181076      -0.00805155       0       0.90170896
          1.48468754e+03      -2.13125005e+03      -0.02259524      -0.01028258       0       0.92287018
          1.48468754e+03      -2.06250004e+03      -0.02907120      -0.01212145       0       0.95012667
          1.48468754e+03      -1.99375004e+03      -0.03693299      -0.01287242       0       0.98499430
          1.48468754e+03      -1.92500004e+03      -0.04583725      -0.01195223       0       1.02879740
          1.48468754e+03      -1.85625004e+03      -0.05562583      -0.00898113       0       1.08248724
          1.48468754e+03      -1.78750004e+03      -0.06590280      -0.00365899       0       1.14690340
          1.48468754e+03      -1.71875004e+03      -0.08050142       0.00480860       0       1.22373616
          1.48468754e+03      -1.65000004e+03      -0.09531292       0.01905714       0       1.31765128
          1.48468754e+03      -1.58125003e+03      -0.15419509       0.04890516       0       1.44138349
          1.48468754e+03      -1.51250003e+03      -0.17346556       0.15449694       0       1.63056644
          1.48468754e+03      -1.44375003e+03       0.03635546       0.21410304       0       1.72820104
          1.48468754e+03      -1.37500003e+03       0.10248850       0.07188487       0       1.60426112
          1.48468754e+03      -1.30625003e+03      -0.00165269       0.04626630       0       1.57108009
          1.48468754e+03      -1.23750003e+03      -0.04206900       0.04308912       0       1.58524762
          1.48468754e+03      -1.16875003e+03      -0.05037094       0.05360641       0       1.64892369
          1.48468754e+03      -1.10000002e+03       0.02594331       0.05580972       0       1.66214063
          1.48468754e+03      -1.03125002e+03       0.07713458       0.05379181       0       1.60279804
          1.48468754e+03      -0.96250002e+03       0.06212849       0.05402926       0       1.52199712
          1.48468754e+03      -0.89375002e+03       0.02849868       0.05986114       0       1.47765894
          1.48468754e+03      -0.82500002e+03       0.01356982       0.06916049       0       1.45496845
          1.48468754e+03      -0.75625002e+03      -0.00216839       0.08218747       0       1.44917528
          1.48468754e+03      -0.68750001e+03      -0.01721529       0.10021254       0       1.45932142
          1.48468754e+03      -0.61875001e+03      -0.03320977       0.12567978       0       1.48600859
          1.48468754e+03      -0.55000001e+03      -0.04799219       0.16286645       0       1.52930183
          1.48468754e+03      -0.48125001e+03      -0.05114218       0.21639913       0       1.58364743
          1.48468754e+03      -0.41250001e+03      -0.02117520       0.27568189       0       1.62602739
          1.48468754e+03      -0.34375001e+03       0.03761172       0.29825812       0       1.61835778
          1.48468754e+03      -0.27500001e+03       0.08054173       0.26831337       0       1.55188913
          1.48468754e+03      -0.20625000e+03       0.08242339       0.22778040       0       1.46210421
          1.48468754e+03      -0.13750000e+03       0.05963573       0.20203233       0       1.38585864
          1.48468754e+03      -0.06875000e+03       0.02981724       0.18974531       0       1.33815369
          1.48468754e+03       0.00000000e+03      -0.00194662       0.18666282       0       1.32332992
          1.48468754e+03       0.06875000e+03      -0.03365138       0.19140775       0       1.34225987
          1.48468754e+03       0.13750000e+03      -0.06309488       0.20579972       0       1.39387586
          1.48468754e+03       0.20625000e+03      -0.08407431       0.23432548       0       1.47303778
          1.48468754e+03       0.27500001e+03      -0.07697756       0.27662459       0       1.56220268
          1.48468754e+03       0.34375001e+03      -0.02905486       0.29991123       0       1.62181346
          1.48468754e+03       0.41250001e+03       0.02796814       0.27141059       0       1.62058684
          1.48468754e+03       0.48125001e+03       0.05226472       0.21001750       0       1.57408164
          1.48468754e+03       0.55000001e+03       0.04588608       0.15852987       0       1.52061856
          1.48468754e+03       0.61875001e+03       0.03034407       0.12300796       0       1.48003556
          1.48468754e+03       0.68750001e+03       0.01409136       0.09842478       0       1.45653662
          1.48468754e+03       0.75625002e+03      -0.00094692       0.08071316       0       1.44973106
          1.48468754e+03       0.82500002e+03      -0.01716708       0.06758000       0       1.45896183
          1.48468754e+03       0.89375002e+03      -0.03053174       0.05811422       0       1.48511833
          1.48468754e+03       0.96250002e+03      -0.07110394       0.05277965       0       1.53330665
          1.48468754e+03       1.03125002e+03      -0.07549511       0.05406909       0       1.62308252
          1.48468754e+03       1.10000002e+03      -0.00411506       0.05562119       0       1.66659132
          1.48468754e+03       1.16875003e+03       0.05324109       0.04956791       0       1.63676234
          1.48468754e+03       1.23750003e+03       0.03182541       0.04234002       0       1.58154811
          1.48468754e+03       1.30625003e+03       0.00108161       0.04675525       0       1.57258477
          1.48468754e+03       1.37500003e+03      -0.12091807       0.07525060       0       1.61150053
          1.48468754e+03       1.44375003e+03      -0.02313073       0.23872758       0       1.75128311
          1.48468754e+03       1.51250003e+03       0.19383433       0.14009952       0       1.61842862
          1.48468754e+03       1.58125003e+03       0.14330862       0.04576920       0       1.43484983
          1.48468754e+03       1.65000004e+03       0.09589838       0.01771452       0       1.31349629
          1.48468754e+03       1.71875004e+03       0.07926188       0.00404348       0       1.22065975
          1.48468754e+03       1.78750004e+03       0.06568744      -0.00418026       0       1.14436961
          1.48468754e+03       1.85625004e+03       0.05542496      -0.00939732       0       1.08022421
          1.48468754e+03       1.92500004e+03       0.04584121      -0.01233086       0       1.02662222
          1.48468754e+03       1.99375004e+03       0.03707005      -0.01324812       0       0.98274822
          1.48468754e+03       2.06250004e+03       0.02936827      -0.01251180       0       0.94765140
          1.48468754e+03       2.13125005e+03       0.02303226      -0.01069514       0       0.92000136
          1.48468754e+03       2.20000005e+03       0.01809785      -0.00873008       0       0.89832500
          1.51500004e+03      -2.20000005e+03     -66.02274843      -0.00983089       0       0.89745175
          1.51500004e+03      -2.13125005e+03      -0.02105474      -0.01282485       0       0.91741421
          1.51500004e+03      -2.06250004e+03      -0.02772974      -0.01537070       0       0.94363983
          1.51500004e+03      -1.99375004e+03      -0.03608833      -0.01673565       0       0.97801194
          1.51500004e+03      -1.92500004e+03      -0.04566566      -0.01623206       0       1.02215298
          1.51500004e+03      -1.85625004e+03      -0.05625101      -0.01358634       0       1.07716876
          1.51500004e+03      -1.78750004e+03      -0.06709729      -0.00893411       0       1.14394084
          1.51500004e+03      -1.71875004e+03      -0.08347686      -0.00240189       0       1.22432256
          1.51500004e+03      -1.65000004e+03      -0.09759399       0.00643360       0       1.32371940
          1.51500004e+03      -1.58125003e+03      -0.17386798       0.01979671       0       1.45786973
          1.51500004e+03      -1.51250003e+03      -0.20331172       0.05770375       0       1.68298095
          1.51500004e+03      -1.44375003e+03       0.05566900       0.06473937       0       1.79371897
          1.51500004e+03      -1.37500003e+03       0.12908327       0.03326059       0       1.62945556
          1.51500004e+03      -1.30625003e+03      -0.00239397       0.02658226       0       1.58833672
          1.51500004e+03      -1.23750003e+03      -0.04048122       0.02342787       0       1.60096129
          1.51500004e+03      -1.16875003e+03      -0.05088850       0.01835358       0       1.66593353
          1.51500004e+03      -1.10000002e+03       0.02570481       0.01863102       0       1.67968417
          1.51500004e+03      -1.03125002e+03       0.07340829       0.02100254       0       1.62074033
          1.51500004e+03      -0.96250002e+03       0.05668163       0.03972354       0       1.54410366
          1.51500004e+03      -0.89375002e+03       0.02408488       0.05102974       0       1.50383719
          1.51500004e+03      -0.82500002e+03       0.00827601       0.06200362       0       1.48594512
          1.51500004e+03      -0.75625002e+03      -0.00871609       0.07521781       0       1.48635946
          1.51500004e+03      -0.68750001e+03      -0.02599276       0.09268370       0       1.50490417
          1.51500004e+03      -0.61875001e+03      -0.04579427       0.11750957       0       1.54350273
          1.51500004e+03      -0.55000001e+03      -0.06756152       0.15581544       0       1.60468455
          1.51500004e+03      -0.48125001e+03      -0.08070924       0.21894877       0       1.68655780
          1.51500004e+03      -0.41250001e+03      -0.04487744       0.29747232       0       1.76163096
          1.51500004e+03      -0.34375001e+03       0.04172534       0.32074033       0       1.76533955
          1.51500004e+03      -0.27500001e+03       0.10193258       0.27788716       0       1.68087949
          1.51500004e+03      -0.20625000e+03       0.09838516       0.21926704       0       1.56780587
          1.51500004e+03      -0.13750000e+03       0.06672905       0.18857119       0       1.47816754
          1.51500004e+03      -0.06875000e+03       0.03250454       0.17524350       0       1.42436994
          1.51500004e+03       0.00000000e+03      -0.00225354       0.17199659       0       1.40803942
          1.51500004e+03       0.06875000e+03      -0.03707561       0.17691902       0       1.42926833
          1.51500004e+03       0.13750000e+03      -0.07129411       0.19258652       0       1.48803138
          1.51500004e+03       0.20625000e+03      -0.10177659       0.22719598       0       1.58215934
          1.51500004e+03       0.27500001e+03      -0.09779979       0.28837445       0       1.69579056
          1.51500004e+03       0.34375001e+03      -0.02904403       0.32900481       0       1.77038278
          1.51500004e+03       0.41250001e+03       0.05423805       0.28889938       0       1.75338687
          1.51500004e+03       0.48125001e+03       0.08102108       0.21007651       0       1.67341559
          1.51500004e+03       0.55000001e+03       0.06424581       0.15092011       0       1.59381109
          1.51500004e+03       0.61875001e+03       0.04243303       0.11475981       0       1.53624220
          1.51500004e+03       0.68750001e+03       0.02267315       0.09089748       0       1.50127102
          1.51500004e+03       0.75625002e+03       0.00561848       0.07374193       0       1.48621557
          1.51500004e+03       0.82500002e+03      -0.01164914       0.06043024       0       1.48919276
          1.51500004e+03       0.89375002e+03      -0.02620885       0.04915276       0       1.51044101
          1.51500004e+03       0.96250002e+03      -0.06473924       0.03727044       0       1.55453619
          1.51500004e+03       1.03125002e+03      -0.07234164       0.01418901       0       1.63934663
          1.51500004e+03       1.10000002e+03      -0.00509801       0.01853107       0       1.68405347
          1.51500004e+03       1.16875003e+03       0.05404568       0.02052497       0       1.65329628
          1.51500004e+03       1.23750003e+03       0.02990454       0.02374045       0       1.59716055
          1.51500004e+03       1.30625003e+03       0.00184757       0.02679118       0       1.59001255
          1.51500004e+03       1.37500003e+03      -0.14972721       0.03391380       0       1.63770003
          1.51500004e+03       1.44375003e+03      -0.03848626       0.06344062       0       1.81917042
          1.51500004e+03       1.51250003e+03       0.22556484       0.05271139       0       1.66586304
          1.51500004e+03       1.58125003e+03       0.15940159       0.01845264       0       1.45024672
          1.51500004e+03       1.65000004e+03       0.09865576       0.00565450       0       1.31905934
          1.51500004e+03       1.71875004e+03       0.08194197      -0.00293798       0       1.22093773
          1.51500004e+03       1.78750004e+03       0.06688545      -0.00933812       0       1.14118804
          1.51500004e+03       1.85625004e+03       0.05601625      -0.01392373       0       1.07472754
          1.51500004e+03       1.92500004e+03       0.04566644      -0.01654310       0       1.01981488
          1.51500004e+03       1.99375004e+03       0.03622726      -0.01704482       0       0.97560416
          1.51500004e+03       2.06250004e+03       0.02801983      -0.01569258       0       0.94099647
          1.51500004e+03       2.13125005e+03       0.02152828      -0.01316742       0       0.91436719
          1.51500004e+03       2.20000005e+03       0.01691034      -0.01011582       0       0.89374652
          1.54531254e+03      -2.20000005e+03     -64.72615961      -0.01167011       0       0.89231058
          1.54531254e+03      -2.13125005e+03      -0.01919331      -0.01539205       0       0.91061679
          1.54531254e+03      -2.06250004e+03      -0.02610415      -0.01878410       0       0.93541780
          1.54531254e+03      -1.99375004e+03      -0.03502208      -0.02089118       0       0.96895877
          1.54531254e+03      -1.92500004e+03      -0.04538547      -0.02084873       0       1.01323235
          1.54531254e+03      -1.85625004e+03      -0.05667345      -0.01848653       0       1.06945057
          1.54531254e+03      -1.78750004e+03      -0.06800126      -0.01445628       0       1.13830784
          1.54531254e+03      -1.71875004e+03      -0.08434772      -0.00989007       0       1.22135417
          1.54531254e+03      -1.65000004e+03      -0.09849461      -0.00667989       0       1.32362831
          1.54531254e+03      -1.58125003e+03      -0.16982628      -0.01146238       0       1.45973296
          1.54531254e+03      -1.51250003e+03      -0.19031244      -0.07183366       0       1.67968252
          1.54531254e+03      -1.44375003e+03       0.04871829      -0.11394891       0       1.78424823
          1.54531254e+03      -1.37500003e+03       0.11588219      -0.00755749       0       1.63538578
          1.54531254e+03      -1.30625003e+03      -0.00116517       0.00671794       0       1.59628152
          1.54531254e+03      -1.23750003e+03      -0.03562677       0.00446858       0       1.60758340
          1.54531254e+03      -1.16875003e+03      -0.04589892      -0.01815654       0       1.66600238
          1.54531254e+03      -1.10000002e+03       0.02470978      -0.02196377       0       1.67912165
          1.54531254e+03      -1.03125002e+03       0.06348249      -0.00832611       0       1.62318421
          1.54531254e+03      -0.96250002e+03       0.04515042       0.02690062       0       1.56003747
          1.54531254e+03      -0.89375002e+03       0.01933153       0.04236117       0       1.52630467
          1.54531254e+03      -0.82500002e+03       0.00264993       0.05455188       0       1.51401821
          1.54531254e+03      -0.75625002e+03      -0.01488693       0.06758853       0       1.52077164
          1.54531254e+03      -0.68750001e+03      -0.03409757       0.08394225       0       1.54748466
          1.54531254e+03      -0.61875001e+03      -0.05780701       0.10702141       0       1.59766905
          1.54531254e+03      -0.55000001e+03      -0.08720471       0.14417034       0       1.67713896
          1.54531254e+03      -0.48125001e+03      -0.12022794       0.21486956       0       1.79143638
          1.54531254e+03      -0.41250001e+03      -0.08033011       0.35448372       0       1.91562593
          1.54531254e+03      -0.34375001e+03       0.05270682       0.40489932       0       1.93444530
          1.54531254e+03      -0.27500001e+03       0.13670313       0.28954228       0       1.81735447
          1.54531254e+03      -0.20625000e+03       0.11878274       0.20499047       0       1.67026673
          1.54531254e+03      -0.13750000e+03       0.07385851       0.17217812       0       1.56516909
          1.54531254e+03      -0.06875000e+03       0.03523312       0.15918163       0       1.50496715
          1.54531254e+03       0.00000000e+03      -0.00252677       0.15612119       0       1.48710213
          1.54531254e+03       0.06875000e+03      -0.04058293       0.16074863       0       1.51065192
          1.54531254e+03       0.13750000e+03      -0.07948671       0.17613257       0       1.57696789
          1.54531254e+03       0.20625000e+03      -0.12558729       0.21386668       0       1.68870145
          1.54531254e+03       0.27500001e+03      -0.13234738       0.31420809       0       1.83963162
          1.54531254e+03       0.34375001e+03      -0.03298940       0.39447136       0       1.94172302
          1.54531254e+03       0.41250001e+03       0.09307141       0.34547978       0       1.90260824
          1.54531254e+03       0.48125001e+03       0.11849619       0.20328102       0       1.77335521
          1.54531254e+03       0.55000001e+03       0.08212809       0.13913144       0       1.66384997
          1.54531254e+03       0.61875001e+03       0.05395951       0.10441300       0       1.58910818
          1.54531254e+03       0.68750001e+03       0.03058292       0.08227775       0       1.54301554
          1.54531254e+03       0.75625002e+03       0.01179810       0.06618947       0       1.51993233
          1.54531254e+03       0.82500002e+03      -0.00572599       0.05302423       0       1.51651710
          1.54531254e+03       0.89375002e+03      -0.02164944       0.04039298       0       1.53197914
          1.54531254e+03       0.96250002e+03      -0.05053989       0.02361629       0       1.56905977
          1.54531254e+03       1.03125002e+03      -0.06280202      -0.01936210       0       1.63738951
          1.54531254e+03       1.10000002e+03      -0.00906203      -0.02263789       0       1.68337009
          1.54531254e+03       1.16875003e+03       0.04940099      -0.01163872       0       1.65564957
          1.54531254e+03       1.23750003e+03       0.02678334       0.00577207       0       1.60417734
          1.54531254e+03       1.30625003e+03       0.00029079       0.00657533       0       1.59797211
          1.54531254e+03       1.37500003e+03      -0.13396563      -0.00999769       0       1.64316925
